ply
format ascii 1.0
element vertex 637
property float x
property float y
property float z
end_header
0.334187 0.015016 -0.220568
0.457295 0.012842 -0.367381
0.122915 0.009357 -0.464211
0.131602 0.019145 -0.432787
-0.045764 0.018610 -0.708755
-0.287901 0.015595 -0.431274
-0.050062 0.012409 -0.719849
-0.287022 0.015634 -0.400002
-0.256042 0.009723 -0.225148
-0.415954 0.018003 -0.281447
-0.221844 0.012143 -0.250983
-0.341135 0.016326 -0.069120
-0.246683 0.008485 -0.200701
-0.259483 0.015779 -0.241626
-0.270785 0.012935 -0.151857
-0.218094 0.007972 -0.205405
-0.212918 0.018112 -0.221333
-0.343433 0.021799 -0.315425
-0.208426 0.011842 -0.210076
-0.296062 0.015627 -0.358644
-0.270278 0.019779 -0.257068
-0.218592 0.012403 -0.262789
-0.265392 0.010105 -0.237401
-0.250516 0.013813 -0.170348
-0.338814 0.024367 -0.315410
-0.252156 0.020348 -0.203888
-0.241976 0.027751 -0.186345
-0.208303 0.023282 -0.234206
-0.264549 0.015829 -0.414580
-0.212774 0.023316 -0.355624
-0.269916 0.020254 -0.335443
-0.204629 0.017350 -0.362758
-0.172074 0.015619 -0.311169
-0.260489 0.008442 -0.313955
-0.201607 0.021472 -0.355715
-0.200899 0.021058 -0.289285
-0.254553 0.015025 -0.374676
-0.282393 0.021500 -0.347070
-0.211138 0.022063 -0.311741
-0.252834 0.009041 -0.397500
-0.192019 0.025497 -0.358501
-0.261207 0.009622 -0.316432
-0.189747 0.011781 -0.243310
-0.141379 0.015779 -0.325054
0.118258 -0.049401 -0.467912
0.113751 -0.091611 -0.480851
0.087584 -0.099101 -0.524912
0.119072 -0.070569 -0.475097
0.118440 -0.099154 -0.476899
0.113034 -0.072562 -0.481023
0.117674 -0.026625 -0.476050
-0.170692 0.017743 -0.407471
-0.152422 0.018521 -0.460483
-0.119332 -0.032797 -0.487821
-0.116833 -0.031723 -0.456495
-0.139009 0.010761 -0.513013
-0.101111 -0.032034 -0.496644
-0.106944 -0.069527 -0.440930
-0.111646 -0.074851 -0.449165
-0.109627 -0.028897 -0.505630
-0.110479 -0.048144 -0.466497
-0.110335 -0.090860 -0.460904
-0.100564 -0.093399 -0.467070
-0.102001 -0.095692 -0.441323
-0.115780 -0.077738 -0.486874
-0.137353 0.019980 -0.503497
-0.103272 -0.095208 -0.482137
-0.130176 0.008611 -0.534717
-0.090431 0.022371 -0.722413
-0.079775 0.011275 -0.728317
-0.061837 0.009442 -0.726545
-0.092329 0.008963 -0.676537
-0.101390 0.013408 -0.521577
-0.123392 0.009143 -0.564068
-0.064164 0.019094 -0.661347
-0.112737 0.008651 -0.549822
-0.027217 0.020619 -0.644025
-0.038377 0.005952 -0.675593
-0.122189 0.023140 -0.554672
-0.045494 0.022640 -0.680097
-0.039836 0.005528 -0.673393
-0.036175 0.009536 -0.653115
-0.116850 0.020269 -0.622017
-0.115757 -0.003976 -0.542729
-0.084824 0.022656 -0.592198
-0.120543 0.009771 -0.570120
-0.210972 0.009413 -0.447048
-0.208041 0.010015 -0.546073
-0.241948 0.023058 -0.442918
-0.242612 0.010734 -0.476019
-0.241017 0.025383 -0.454672
-0.251198 0.018736 -0.464239
-0.170835 0.011784 -0.475494
-0.140484 0.009742 -0.602918
-0.264046 0.023143 -0.434647
-0.202488 0.011095 -0.459467
-0.145796 0.005624 -0.510598
-0.166022 0.011658 -0.589175
-0.197717 0.014744 -0.556896
-0.202387 0.022302 -0.525353
-0.140894 0.017938 -0.650936
-0.144021 0.011034 -0.638783
-0.155314 0.018702 -0.647601
-0.173929 0.009753 -0.496681
-0.176780 0.021940 -0.519675
-0.191644 0.022610 -0.543544
-0.147347 0.022851 -0.650429
-0.204406 0.008645 -0.538409
-0.129663 0.015376 -0.552252
-0.150237 0.009772 -0.620878
-0.152455 0.011396 -0.633743
-0.150425 0.022981 -0.513716
-0.144229 0.019143 -0.653812
-0.231208 0.012878 -0.377287
-0.204491 0.011217 -0.613531
0.102312 -0.075119 -0.527620
0.083608 -0.056715 -0.549603
0.101674 -0.092634 -0.529990
0.099353 -0.028123 -0.525289
0.106949 -0.052435 -0.491728
0.102562 -0.069105 -0.527658
0.098664 -0.026215 -0.527256
0.107945 -0.031740 -0.536741
0.103868 0.015636 -0.528304
0.107611 0.021401 -0.540672
0.069355 -0.047139 -0.555822
0.101613 0.021941 -0.537415
0.049750 -0.088558 -0.564090
0.081406 -0.035544 -0.558811
0.044793 -0.053319 -0.563437
0.051957 -0.048121 -0.563587
0.045475 0.019780 -0.571685
0.069974 -0.019126 -0.555676
0.071933 -0.035895 -0.560066
0.082231 0.015919 -0.569119
0.059315 0.010394 -0.572232
0.099310 0.008770 -0.558142
0.026549 -0.033744 -0.597768
-0.122894 0.013072 -0.129242
-0.229266 0.013475 -0.187229
-0.142531 0.023236 -0.149372
-0.136371 0.008944 -0.146128
-0.125530 0.023098 -0.137147
-0.233467 0.026522 -0.179455
-0.094328 0.023928 -0.109620
-0.115322 0.016013 -0.082474
0.028059 0.015656 -0.648382
0.028823 0.022602 -0.615677
0.102942 0.010883 -0.582880
-0.000692 0.022089 -0.670165
0.091422 0.019551 -0.639483
0.041944 0.025374 -0.680912
0.099155 0.012072 -0.605004
0.095281 -0.016477 -0.578462
0.062729 0.014033 -0.610197
0.104640 0.021658 -0.607306
0.086514 0.013593 -0.618251
0.026683 0.011947 -0.673900
0.084180 0.019919 -0.570404
0.118893 0.020369 -0.595802
0.108712 0.005959 -0.639709
0.109849 0.011220 -0.606952
0.061663 0.015736 -0.594255
0.040073 0.009064 -0.673137
0.026025 0.009316 -0.676405
0.078953 0.008839 -0.644076
0.032986 0.013193 -0.609825
0.095462 0.015394 -0.622265
0.145116 0.011280 -0.311732
0.170627 0.014407 -0.328215
0.170695 0.017472 -0.328361
0.193721 0.014131 -0.366997
0.407805 0.012937 -0.762419
0.455695 0.013007 -0.565860
-0.013398 -0.093301 -0.353053
-0.020016 -0.069917 -0.350801
-0.031478 -0.048120 -0.347468
-0.037287 -0.057705 -0.355026
-0.046333 -0.104481 -0.355713
-0.012055 -0.100415 -0.341275
-0.338050 0.010468 -0.406936
-0.282760 0.015687 -0.558659
-0.300371 0.011354 -0.549653
-0.350217 0.015823 -0.516569
-0.329238 0.009940 -0.466794
-0.427897 0.012537 -0.476516
-0.325768 0.009034 -0.474939
-0.238745 0.025257 -0.580067
-0.280140 0.019154 -0.467957
-0.266191 0.012370 -0.583948
-0.339367 0.011582 -0.364058
-0.323596 0.007252 -0.474292
-0.363215 0.019589 -0.480628
-0.362706 0.025904 -0.469024
-0.288307 0.015884 -0.585437
-0.268636 0.015695 -0.536610
-0.303311 0.022758 -0.400316
-0.300218 0.008890 -0.362106
-0.351445 0.011346 -0.484781
-0.313990 0.007110 -0.472551
-0.252060 0.019271 -0.576360
-0.446734 0.013364 -0.686106
-0.089786 0.011790 -0.225575
-0.038907 0.018058 -0.261805
-0.195705 0.015815 -0.296175
-0.031949 0.021443 -0.160662
-0.055941 0.015752 -0.167817
-0.161727 0.020580 -0.256112
-0.002079 0.008431 -0.226963
-0.181643 0.011688 -0.242417
-0.096479 0.012267 -0.276689
-0.079251 0.015759 -0.250758
-0.049545 0.022569 -0.246079
-0.162492 0.021304 -0.276662
-0.068397 0.026391 -0.215625
-0.043129 0.008520 -0.262031
-0.068381 0.021526 -0.208182
-0.069291 0.010444 -0.159459
0.011510 0.009563 -0.221938
-0.014209 0.008972 -0.160100
-0.031265 0.009035 -0.184931
-0.031062 0.021189 -0.230391
-0.091496 0.024669 -0.120155
-0.066537 0.017543 -0.232941
-0.095967 0.009672 -0.178722
-0.177351 0.006452 -0.253889
-0.089827 0.022768 -0.267762
-0.122639 0.022342 -0.197134
-0.153936 0.008642 -0.282035
-0.075637 0.008011 -0.188749
-0.098432 0.009022 -0.237641
0.115572 0.018745 -0.424112
0.111487 -0.032721 -0.437505
0.113510 -0.034551 -0.432301
0.096715 -0.051083 -0.384969
0.087476 -0.069964 -0.380736
0.049220 -0.090095 -0.355240
0.108880 -0.026825 -0.407718
0.134121 0.008780 -0.394171
0.078793 -0.077934 -0.372273
0.119726 -0.036079 -0.450379
0.106112 -0.098866 -0.422327
0.074003 -0.092177 -0.383370
0.109602 -0.048638 -0.463923
0.105553 -0.076656 -0.457523
0.117395 -0.072114 -0.447022
0.107727 -0.050919 -0.451179
0.094949 -0.100255 -0.385916
0.049001 -0.096588 -0.357441
0.083347 -0.027970 -0.383314
0.132211 0.009071 -0.435991
0.096372 0.016196 -0.385647
0.107358 -0.037837 -0.402923
0.143673 0.017364 -0.404654
0.089684 -0.097298 -0.380464
-0.335772 0.023374 -0.573426
-0.303206 0.023169 -0.553293
-0.303840 0.013011 -0.817950
-0.187070 0.019613 -0.688885
-0.212606 0.022500 -0.705801
-0.208794 0.012398 -0.719156
-0.247968 0.018448 -0.755129
-0.204187 0.019926 -0.719585
-0.287257 0.023453 -0.596761
-0.138849 0.015576 -0.688129
-0.248928 0.015913 -0.760265
-0.180087 0.016849 -0.692645
-0.180817 0.019007 -0.649588
-0.220774 0.014009 -0.659867
-0.252329 0.016188 -0.745603
-0.255680 0.008598 -0.708225
-0.153326 0.006420 -0.662404
-0.192289 0.022430 -0.711064
-0.329136 0.005128 -0.626442
-0.239175 0.020383 -0.760018
-0.336005 0.009543 -0.555751
-0.316053 0.019813 -0.615974
-0.241817 0.012119 -0.633271
-0.319354 0.012654 -0.639698
-0.194754 0.008909 -0.703318
-0.334893 0.027770 -0.622993
-0.125620 0.009551 -0.697281
-0.264221 0.011114 -0.618898
-0.277682 0.017414 -0.792091
-0.332430 0.011990 -0.610900
-0.213797 0.020410 -0.713443
-0.277007 0.023309 -0.674875
-0.244460 0.022273 -0.733418
-0.130609 0.005359 -0.383810
-0.093949 -0.023946 -0.404094
-0.110802 0.017496 -0.352599
-0.120508 0.023351 -0.457962
-0.094133 -0.070519 -0.399231
-0.085489 0.011524 -0.380866
-0.156308 0.015755 -0.379749
-0.084144 0.010545 -0.307358
-0.054674 0.006966 -0.331911
-0.101017 0.018825 -0.304503
-0.120589 0.010882 -0.460334
-0.106581 -0.078744 -0.428541
-0.136465 0.013723 -0.440622
-0.054230 -0.036037 -0.355564
-0.055573 -0.056950 -0.353585
-0.049672 -0.071543 -0.363725
-0.167026 0.022456 -0.455376
-0.075276 -0.048081 -0.388346
-0.074035 0.021079 -0.356074
-0.113673 0.010421 -0.473023
-0.088255 -0.089657 -0.392735
-0.050551 0.012824 -0.332824
-0.081016 -0.095221 -0.379822
-0.088353 -0.061246 -0.384991
-0.081689 -0.000448 -0.370064
-0.102961 -0.026551 -0.412465
-0.139432 0.017903 -0.415728
-0.046039 -0.025224 -0.351619
-0.111380 0.017170 -0.447781
-0.120244 -0.025388 -0.436030
-0.074542 -0.077278 -0.392128
-0.157411 0.012545 -0.378540
-0.087379 -0.098858 -0.389661
-0.090031 -0.097526 -0.391421
-0.090271 0.014668 -0.400393
-0.131316 0.011752 -0.415349
-0.092509 -0.032679 -0.408562
-0.048961 -0.104866 -0.355091
-0.087163 0.017065 -0.368797
-0.144216 0.022603 -0.344838
-0.154701 0.015613 -0.367928
-0.111400 -0.055502 -0.429936
-0.107901 0.020590 -0.312073
-0.097881 -0.096657 -0.431733
-0.134481 0.009507 -0.417723
0.123331 0.007079 -0.659394
0.175986 0.014416 -0.633005
0.125343 0.009531 -0.644805
0.129165 0.009049 -0.639946
0.097767 0.015545 -0.666463
0.107962 0.009038 -0.646841
0.130730 0.006041 -0.687163
0.124943 0.009806 -0.649330
0.036930 0.025349 -0.714571
0.146782 0.021690 -0.658719
0.228125 0.025271 -0.639271
0.241230 0.008585 -0.627007
0.165078 0.022683 -0.384748
0.172227 0.022702 -0.557034
0.189113 0.008102 -0.420649
0.194503 0.018728 -0.433071
0.151229 0.009859 -0.595489
0.163019 0.017241 -0.426441
0.107652 -0.029403 -0.528911
0.173516 0.022740 -0.600425
0.177144 0.009349 -0.545790
0.167720 0.007041 -0.583941
0.142254 0.012210 -0.438466
0.126395 -0.025013 -0.493347
0.178613 0.008489 -0.598273
0.160139 0.011879 -0.437789
0.136324 0.015834 -0.504661
0.122793 -0.068150 -0.491515
0.210018 0.015738 -0.561527
0.128330 0.016005 -0.525513
0.129249 0.021846 -0.556817
0.130739 0.024114 -0.558631
0.189378 0.005799 -0.428097
0.196196 0.022782 -0.592015
0.184742 0.019930 -0.624788
0.131548 0.022547 -0.496070
0.145427 0.009027 -0.500280
0.162211 0.008486 -0.589445
0.140026 0.012020 -0.555622
0.225798 0.021399 -0.627836
0.170774 0.020335 -0.596098
0.173505 0.015659 -0.412310
0.223901 0.008620 -0.487594
0.229512 0.018892 -0.292377
0.228300 0.010125 -0.290213
0.175413 0.008433 -0.328554
0.184678 0.009698 -0.284068
0.201514 0.011790 -0.303503
0.140793 0.014063 -0.297823
0.027336 0.008420 -0.192720
0.010652 0.009754 -0.178142
0.016183 0.017073 -0.212818
0.153875 0.010259 -0.262318
-0.126983 0.008609 -0.792537
-0.176021 0.021077 -0.769345
-0.060178 0.008400 -0.777152
-0.149805 0.012142 -0.730231
-0.093927 0.019405 -0.761042
-0.085619 0.020908 -0.818785
-0.227426 0.014049 -0.757804
-0.106003 0.013475 -0.835447
-0.009217 0.022264 -0.776042
-0.146147 0.010114 -0.729313
-0.019709 0.015467 -0.770059
-0.211585 0.008523 -0.755450
-0.219334 0.017603 -0.749928
0.039674 0.010362 -0.726891
0.036242 0.024002 -0.754856
-0.052092 0.020479 -0.748752
0.010583 0.008389 -0.747282
-0.020585 -0.091383 -0.572973
-0.081471 -0.032833 -0.569509
-0.034223 0.005820 -0.636169
-0.010474 -0.089969 -0.569378
-0.041624 -0.022503 -0.583005
0.038701 -0.058016 -0.568106
-0.070890 -0.076222 -0.554557
0.017459 -0.058010 -0.563404
0.026920 0.024728 -0.601516
-0.050212 0.020880 -0.592691
0.028380 -0.049548 -0.569278
-0.096313 -0.089626 -0.511570
-0.082946 -0.059047 -0.530659
-0.103169 -0.016630 -0.542397
-0.058104 0.011842 -0.574803
-0.037304 -0.026398 -0.573912
-0.007692 -0.035470 -0.568969
-0.016415 -0.014696 -0.587169
-0.079822 -0.072814 -0.524934
-0.085912 -0.035226 -0.543633
-0.099487 -0.050136 -0.518768
-0.037790 0.011878 -0.571682
-0.053197 -0.036005 -0.561756
-0.031155 -0.088565 -0.561324
-0.053624 -0.057290 -0.564755
0.017785 -0.062802 -0.565931
-0.075029 -0.069165 -0.543701
-0.101943 -0.070097 -0.490103
0.035575 -0.050298 -0.560821
-0.070924 -0.044971 -0.555262
-0.080391 -0.056153 -0.528694
-0.093456 -0.069992 -0.524598
-0.027257 -0.101087 -0.565494
-0.032772 -0.051306 -0.566784
0.022430 0.011771 -0.579612
-0.064176 -0.090510 -0.558602
-0.095526 0.022616 -0.607960
-0.077404 0.015806 -0.590981
-0.009213 0.015572 -0.575190
-0.034885 0.007694 -0.643341
-0.045148 0.008979 -0.592273
0.011661 -0.095762 -0.554411
-0.020203 0.016814 -0.629845
-0.070870 -0.066797 -0.559847
-0.022813 0.024234 -0.600451
0.025407 -0.048255 -0.559363
-0.042906 0.009560 -0.631611
-0.083350 -0.031447 -0.530148
-0.017681 -0.053555 -0.335809
0.121547 0.019117 -0.354003
0.015083 0.015843 -0.303055
0.017676 -0.075664 -0.336190
-0.006240 0.020996 -0.335912
0.015680 0.021804 -0.328867
0.069663 0.001828 -0.336226
0.020549 0.008731 -0.268484
0.064457 -0.055137 -0.352070
0.057009 -0.053883 -0.345228
0.101931 0.016301 -0.263669
0.113914 -0.009017 -0.387447
0.016964 0.020017 -0.229411
0.051138 -0.085824 -0.361355
-0.000689 -0.026768 -0.338931
0.018477 -0.062279 -0.346037
-0.006984 -0.048063 -0.345425
0.030219 0.015530 -0.320182
0.009956 -0.057636 -0.342586
0.033571 -0.036193 -0.340117
0.017872 0.012006 -0.252289
0.028251 -0.095204 -0.334887
0.029670 -0.026620 -0.337055
0.061354 -0.048308 -0.360237
-0.017139 -0.048254 -0.334856
0.123329 0.023124 -0.370506
-0.027433 0.021847 -0.297666
0.104123 0.008740 -0.256791
0.152146 0.007667 -0.349927
0.025013 0.015433 -0.253970
-0.019745 0.015621 -0.334383
0.083723 0.021558 -0.358921
0.080360 0.018114 -0.259046
0.150595 0.019975 -0.352037
-0.010426 0.021857 -0.269564
0.011467 0.013369 -0.267426
0.096608 0.021771 -0.371396
0.045837 0.012385 -0.275165
-0.019741 0.024130 -0.307600
0.025926 0.024066 -0.260859
0.002611 0.016366 -0.295752
0.024254 0.014075 -0.272090
0.099787 0.010801 -0.380521
0.120743 0.013455 -0.377794
0.062472 0.013148 -0.300467
0.047216 -0.058011 -0.347123
0.135600 0.009700 -0.362296
0.148146 0.022675 -0.710332
0.171395 0.020348 -0.787278
0.124862 0.023125 -0.754035
0.183729 0.017770 -0.721918
0.259236 0.019621 -0.657389
0.159533 0.015839 -0.756549
0.059798 0.008334 -0.789163
0.204963 0.011913 -0.760862
0.222200 0.019035 -0.838136
0.393575 0.018172 -0.754333
0.274845 0.015728 -0.696531
0.298867 0.026663 -0.672471
0.229096 0.016331 -0.715949
0.284445 0.022090 -0.669936
0.048151 0.021887 -0.781846
0.354001 0.013065 -0.721479
0.180030 0.021520 -0.769992
0.309717 0.009738 -0.678126
0.134905 0.009883 -0.692547
0.064568 0.012746 -0.867893
-0.000220 0.012998 -0.805189
0.043578 0.012069 -0.766339
-0.066380 0.016736 -0.805946
0.018418 0.008381 -0.780173
0.126043 0.023384 -0.686651
0.297667 0.022424 -0.669011
0.055346 0.008683 -0.815888
-0.039685 0.019131 -0.811915
0.236651 0.019378 -0.645748
0.079703 0.016847 -0.779089
0.090493 0.015736 -0.811729
0.096245 0.008418 -0.800774
0.209580 0.009753 -0.674565
0.041605 0.021520 -0.796215
0.276355 0.008502 -0.689006
0.163108 0.008582 -0.691654
0.214743 0.012224 -0.746741
0.145616 0.023828 -0.713431
0.190092 0.021941 -0.698384
0.216323 0.018787 -0.826020
0.053999 0.015622 -0.851574
0.059726 0.019551 -0.875359
0.105423 0.011357 -0.730874
0.049750 0.025952 -0.758971
0.094652 0.021442 -0.728943
0.191233 0.009850 -0.696296
0.316509 0.015689 -0.632693
0.139042 0.026387 -0.183684
0.161543 0.009197 -0.152912
0.087460 0.008523 -0.166884
0.072755 0.008440 -0.160344
0.124835 0.008499 -0.202791
0.136011 0.009795 -0.236577
0.382457 0.012002 -0.197728
0.245488 0.015806 -0.208378
-0.034065 0.015788 -0.122560
0.134934 0.018889 -0.125576
0.057426 0.011164 -0.147731
0.150062 0.023217 -0.168151
0.308182 0.014825 -0.258410
0.094430 0.008613 -0.208065
0.105241 0.023074 -0.124866
0.142550 0.021107 -0.250129
0.038292 0.021882 -0.133245
0.166440 0.020498 -0.219886
0.003870 0.023248 -0.111361
0.160556 0.015812 -0.205983
0.009334 0.022589 -0.152406
0.040323 0.021579 -0.185506
0.181863 0.020208 -0.124226
-0.066635 0.009703 -0.119465
0.041785 0.026121 -0.091750
-0.009957 0.011716 -0.154032
0.051811 0.015679 -0.185356
0.077910 0.022614 -0.203582
0.142938 0.015436 -0.193899
0.050620 0.013337 -0.140659
0.047535 0.011832 -0.108573
0.291283 0.011556 -0.239855
0.165655 0.021593 -0.135474
0.238565 0.015162 -0.027802
0.296205 0.026962 -0.254550
0.197261 0.010752 -0.252913
0.169303 0.005886 -0.135533
0.260753 0.011956 -0.263609
0.166301 0.021776 -0.270652
0.127677 0.022361 -0.176074
0.186270 0.013262 -0.121254
0.290268 0.007797 -0.246541
0.202584 0.012850 -0.254813
-0.034484 0.011821 -0.113384
0.263463 0.010709 -0.478945
0.425678 0.019676 -0.373552
0.276716 0.009652 -0.406797
0.294338 0.008477 -0.357693
0.336563 0.015701 -0.349895
0.342327 0.023142 -0.559733
0.305149 0.018847 -0.446788
0.359904 0.014780 -0.381737
0.255897 0.022325 -0.543133
0.256460 0.015109 -0.528549
0.229663 0.006337 -0.514293
0.287641 0.023475 -0.528971
0.283366 0.023573 -0.403889
0.320844 0.012384 -0.393019
0.346198 0.019182 -0.537730
0.263130 0.015861 -0.274865
0.321216 0.012507 -0.541166
0.298893 0.019957 -0.565373
0.221013 0.010219 -0.515005
0.256686 0.012191 -0.463284
0.231556 0.024095 -0.514108
0.271639 0.020792 -0.417834
0.263170 0.013499 -0.417705
0.305985 0.011623 -0.634690
0.240795 0.023026 -0.314016
0.308151 0.004765 -0.533109
0.309794 0.006768 -0.405883
0.292702 0.014216 -0.338377
0.306189 0.021329 -0.539573
0.216174 0.010759 -0.404578
0.299741 0.021369 -0.529548
0.332672 0.009281 -0.354336
0.344255 0.020738 -0.381531
0.345866 0.012285 -0.509862
0.342497 0.019851 -0.473507
0.346794 0.022917 -0.484852
0.314235 0.009437 -0.415016
0.361762 0.009114 -0.549197
0.271796 0.007995 -0.526484
0.304814 0.010435 -0.530002
0.279119 0.016235 -0.279106
0.279703 0.010600 -0.617968
0.262852 0.007774 -0.402471
0.276520 0.011619 -0.602163
0.217018 0.015661 -0.527461
0.243483 0.007933 -0.413648
0.221853 0.008485 -0.515894
0.283408 0.014778 -0.343127
